11.4688,4.1658,5.4096,135,72,108
12.4164,4.529,5.2914,131,88,148
12.6078,4.3554,5.3016000000000005,128,113,128
9.8308,3.9024,5.8232,141,119,101
12.3522,4.5566,5.3622000000000005,142,81,147
10.9452,4.6806,5.9186000000000005,158,128,158
9.5072,4.7298,6.142600000000002,117,108,89
12.2222,4.4830000000000005,5.5418,124,118,103
11.4484,4.545,5.7674,125,130,123
8.732000000000001,4.7164,5.2358,102,158,124
9.9766,4.7088,6.1182,124,125,125
8.7272,4.4786,5.3218000000000005,126,125,118
8.619200000000001,5.0672000000000015,5.7188,125,128,124
9.9296,4.558,6.9996,120,128,123
8.8254,4.8144,5.0208,91,129,126
8.7622,4.4422000000000015,5.3862000000000005,145,109,128
12.4256,4.3966,5.3434,78,110,119
11.593,4.4846,5.8248000000000015,131,118,141
10.4254,4.5688,5.9632000000000005,123,125,118
11.3262,3.7486,6.8894,101,135,51
12.6642,4.3518,5.1102,127,124,125
9.912,4.5284,6.917999999999999,87,122,149
11.4616,4.0542,5.199400000000002,177,124,168
9.1228,4.73,6.2866,129,124,132
10.7954,4.5106,5.8368,120,116,89
12.4254,4.482,5.432,127,122,126
10.6876,4.2026,5.1676,108,137,173
8.672600000000001,5.0588000000000015,5.7044000000000015,126,125,125
9.2302,4.7314,6.2546,121,131,99
12.1488,4.4076,5.506,129,126,125
11.2174,4.104,4.9792000000000005,148,149,125
11.4268,4.0568,5.1640000000000015,130,136,122
8.6788,4.7682,5.2090000000000005,117,171,131
10.415999999999999,4.1144,5.245,127,126,126
8.7102,4.5872,6.006,131,99,125
8.9078,4.6308,5.255800000000002,127,126,125
10.0028,4.602,6.9182000000000015,103,152,136
12.137,4.4196,5.4744,128,131,121
8.751000000000001,4.3464,5.4284,84,155,102
10.31,4.5854,6.0674,123,124,109
11.140999999999998,4.1566,4.941400000000002,109,103,141
10.9948,4.7856000000000005,5.9774,111,117,168
10.4532,4.5366,5.94,111,116,99
10.6358,4.4284,6.493600000000002,118,183,143
10.9438,4.4460000000000015,5.8714,135,112,105
11.5182,4.122,5.3014,130,167,158
8.9502,4.5848,5.2896,127,127,128
10.575999999999999,4.1166,5.1734,146,137,111
8.7828,4.7730000000000015,5.2296000000000005,132,127,122
8.771600000000001,4.7332,5.2379999999999995,126,129,127
10.4366,4.5536,5.9492,115,117,105
8.6318,5.0324,5.8238,108,142,117
8.7698,4.6400000000000015,5.984,130,125,133
10.4236,4.3548,6.272,101,134,114
11.3542,3.9718,5.7426,153,90,101
8.8556,4.7456000000000005,6.6202000000000005,119,118,132
8.7524,4.8636,6.0478000000000005,136,126,91
8.7554,4.7948,5.1012,126,126,125
11.1796,4.0704,4.9764,108,132,128
10.3928,4.115,5.2792,123,126,143
9.4166,3.8758,5.9428,121,100,109
10.6884,4.088,5.780200000000002,71,179,99
9.049,4.6444,6.1126000000000005,124,127,129
11.681,4.2418000000000005,5.328600000000002,149,169,190
9.182,3.8794,5.851,120,124,121
10.5922,4.4034,6.4542,102,163,169
10.5636,4.5598,5.9566,127,126,126
11.9974,4.3998,5.4422000000000015,127,127,125
11.9786,4.3862000000000005,5.4682,126,127,125
8.738999999999999,4.9328,6.0234000000000005,147,146,143
11.2946,4.8702000000000005,6.129,123,169,158
11.0066,4.7364000000000015,5.9398,129,132,147
8.899000000000003,4.7128000000000005,6.5710000000000015,127,128,124
8.971400000000003,4.7732,6.6450000000000005,123,121,117
8.9068,4.9936,5.3394,43,174,70
10.174,4.1498,5.3100000000000005,107,135,139
8.894,4.5682,6.7146,123,90,102
10.3298,4.0268000000000015,5.206,118,110,129
10.744000000000002,4.4722,5.864400000000002,100,143,52
11.370999999999999,4.5150000000000015,5.7834,102,132,112
8.8162,4.6378,6.0364,133,148,140
8.734,4.463,5.3954,132,118,130
8.9604,3.7346,5.7744,36,136,109
9.013,3.8674,5.7694,121,158,128
8.7424,4.7952,5.1812000000000005,126,127,125
8.978,4.811,6.6276,90,123,119
12.0724,4.3636,5.559,148,123,156
8.7722,4.702,5.1554,110,121,116
8.722999999999999,5.0422,5.6926000000000005,114,150,121
11.524,4.4842,5.8274,125,125,131
8.7208,5.0134,5.7784,125,126,123
8.7874,4.7786,5.231800000000002,120,125,120
8.9916,4.7266,5.915,126,128,125
9.0112,4.6546,6.703600000000002,154,165,119
11.2038,4.1126000000000005,4.974,131,136,123
9.9564,3.9832,5.792999999999999,165,117,99
8.7334,4.5814,6.0062000000000015,123,117,115
10.7114,4.045,5.8436,96,151,137
8.6278,4.4034,5.3314,151,140,111
9.4376,4.8228,6.1486,116,137,151
12.2864,4.5016,5.5206,124,107,105
11.659,4.5344000000000015,5.7012,122,119,167
12.4508,4.5432000000000015,5.279,136,94,170
8.7734,4.6268,6.0142000000000015,124,123,115
8.7382,4.9624000000000015,5.7246000000000015,165,155,107
9.9084,3.9136,5.8046000000000015,161,108,89
10.5572,4.6428,5.9324,99,130,149
9.2806,3.8246,5.9754000000000005,126,126,125
10.2508,3.6210000000000004,4.7688000000000015,99,128,152
8.620800000000001,5.025,5.8234,87,150,116
8.929,4.5854,6.6256,118,160,153
8.6186,5.0264000000000015,5.6222,109,115,112
10.8862,4.5614,5.8660000000000005,130,126,130
9.875,4.2476,5.2362,101,126,132
8.8566,4.7306,5.1604,110,136,120
8.796800000000003,4.7698,5.2378,125,122,120
8.8666,4.6516,5.3418,125,125,132
8.929400000000003,4.7926,6.699400000000002,107,108,108
10.9158,4.034,6.702999999999999,59,142,120
10.4862,4.1156000000000015,5.7176,108,173,82
12.5196,4.3574,5.3522,122,123,152
8.5924,5.1302,5.7614,110,130,167
9.0736,3.8986,5.800000000000002,111,142,147
12.1922,4.484,5.4604,134,117,140
8.743400000000001,4.5332,5.3596,128,114,150
10.6294,4.1058,5.7810000000000015,80,136,101
8.972000000000003,4.703600000000002,6.5334,126,126,125
10.4356,4.5204,6.0282,114,122,170
9.0968,4.7596,6.2898000000000005,165,120,150
8.757200000000001,4.5378,6.0630000000000015,108,128,133
12.4628,4.5680000000000005,5.4086,112,105,107
8.743,4.6538,6.034000000000002,125,130,123
11.08,4.474,5.791,114,133,81
8.8084,4.6882,6.1174,124,127,124
9.1482,4.3872,5.388800000000002,139,124,156
12.025,4.3382000000000005,5.521800000000002,129,128,139
8.8842,4.698,6.5950000000000015,132,127,125
8.771,4.7524000000000015,5.2268,128,125,126
8.640600000000001,4.485,5.4072000000000005,127,125,119
10.4634,4.3326,6.296200000000002,111,128,107
12.5454,4.4186000000000005,5.3478,127,125,126
8.7742,4.8596,5.1036,125,126,125
8.7964,4.6746,6.6292,126,158,127
9.9992,4.4476,6.894,116,157,171
12.7036,4.4198,5.0246,133,83,126
8.6842,4.9866,5.7216000000000005,129,126,125
9.2814,3.8792,5.9572,131,131,112
12.5784,4.332,5.2358,126,127,125
9.9772,4.5332,6.9064000000000005,125,124,133
11.415999999999999,4.12,5.562,132,130,113
8.851,4.6974,5.3184000000000005,119,126,131
10.241,4.0608,5.8028,147,118,131
10.1518,4.4506000000000006,6.3518,87,158,94
11.411,3.9892,5.1579999999999995,138,123,97
8.8736,4.9432,5.864,49,156,98
9.062,4.614,6.5374,138,148,119
9.3192,3.7232,5.8916,126,127,126
11.0138,4.5158000000000005,5.8978,133,100,154
11.757,4.303999999999999,5.3902,136,131,122
8.802200000000003,4.2618,6.1574,123,129,131
11.1178,4.1852,5.0226000000000015,129,128,125
12.4038,4.3839999999999995,5.3646,89,126,114
9.324,3.686,5.8666,127,128,126
8.799800000000003,4.7356,5.3106,133,155,120
8.6996,4.777,5.199400000000002,132,151,117
8.9536,4.7944,6.565,104,136,135
8.6452,5.0489999999999995,5.7272,126,127,126
8.631400000000001,4.9364,5.752999999999999,108,165,168
11.9972,4.4596,5.489800000000002,126,127,125
9.5004,4.3202,5.2506,108,114,90
12.4594,4.3614000000000015,5.2896,77,104,125
11.1062,4.149,5.0476,124,127,123
11.3522,4.0856,5.0826,112,143,106
12.5284,4.3506,5.2452000000000005,126,126,125
12.4056,4.5028000000000015,5.3318,127,116,126
10.1598,4.2048000000000005,5.2948,113,130,125
8.9008,4.7982000000000005,6.5126,131,111,159
11.584,4.4702,5.8056,125,124,132
9.6672,3.9184,5.8158,134,112,126
8.7432,4.6246,6.1252,125,127,126
11.9118,4.3642,5.401000000000002,139,114,144
11.3258,4.1118000000000015,5.075,117,145,117
11.2876,4.1084000000000005,5.0698,102,155,137
8.8244,4.6102,6.0832000000000015,126,128,124
8.7164,4.6934000000000005,6.1956000000000016,136,138,119
9.7854,4.7536000000000005,6.1324000000000005,124,126,120
9.3508,3.8984,5.9204,140,129,131
12.218,4.4352,5.517,129,122,131
8.968,4.5934,5.3344000000000005,128,118,153
8.9186,3.7489999999999997,5.812,109,141,136
8.736,4.4026000000000005,6.21,126,127,125
10.3,4.5286,6.0722000000000005,103,116,107
9.9554,4.5112000000000005,6.9548000000000005,102,137,149
8.6798,4.703600000000002,6.0394000000000005,130,111,130
9.3222,3.8316,6.0104000000000015,127,104,116
10.3052,4.1098,5.2742,113,121,153
12.5482,4.4862,5.2578000000000005,119,127,149
9.3802,4.8138000000000005,6.2268,126,125,125
8.7284,4.9496,5.0956,118,126,115
9.2348,3.7352,5.843999999999999,51,195,58
8.7324,4.6030000000000015,5.2692000000000005,125,122,126
9.5568,4.5806,4.9586000000000015,104,142,92
11.2452,4.1724000000000006,5.072,116,134,104
12.0446,4.461,5.441400000000002,115,138,155
12.6344,4.3982,5.1074,142,97,136
8.8168,4.7726000000000015,5.0028000000000015,101,130,123
11.872,4.3076,5.4548000000000005,145,167,120
8.7772,4.6264,6.0832000000000015,126,127,125
12.463,4.4898,5.3712,126,127,125
12.557,4.4262000000000015,5.2074,133,104,151
10.4744,4.602,5.9554,126,126,125
10.9382,4.4568,5.8874,144,109,131
10.5552,4.5518,5.8954,115,110,117
8.7296,5.0572,5.7874,123,141,127
10.466,4.0808,5.232,137,120,123
9.2912,4.84,6.1979999999999995,163,98,125
10.2802,4.5094,6.1416,167,138,117
9.9476,4.6748,6.0924000000000005,116,117,125
8.672,4.941400000000002,5.8364,93,114,167
10.415,4.3708,6.2872,99,137,113
8.6902,4.3686,6.2104,122,130,125
8.846,4.6628,6.6692,116,136,121
11.1638,4.1494,5.0514,123,135,121
8.699,4.8116,6.1164000000000005,128,122,128
10.1274,4.6342,5.9990000000000006,113,127,115
9.1936,3.9412,5.8542000000000005,158,117,129
8.74,4.862,5.0472,125,125,123
9.345,4.6574,4.1626,118,136,171
8.982800000000003,4.6184,5.2700000000000005,126,128,123
8.7984,5.0002,5.816,118,167,152
10.5212,4.333,6.316000000000002,133,180,131
8.960600000000003,4.7356,5.9458,123,135,123
12.3824,4.4994000000000005,5.3936,126,126,125
8.8268,4.815,5.1476000000000015,110,129,123
8.6948,4.7174000000000005,5.1986,108,124,148
10.33,3.9008,5.1322,168,181,185
10.841,4.0504,4.961,145,165,180
9.182,4.4938,5.2596,94,111,111
8.9936,4.678,5.9798,115,141,132
10.9374,4.5108000000000015,5.875,126,126,126
9.2072,3.8878,5.832999999999999,125,114,118
11.7446,4.4682,5.6964000000000015,153,94,140
11.422,4.1022,5.1528,118,145,126
12.652999999999999,4.3448,5.2,127,127,125
10.3168,4.1162,5.2786,116,124,152
8.8866,4.7686,5.3926,137,111,131
9.558,4.7886000000000015,6.1726,123,123,134
10.3912,4.1392,5.2898000000000005,118,116,126
12.0606,4.4586000000000015,5.4748,126,128,134
9.4048,3.788,5.836200000000002,103,150,141
8.7278,4.9092,5.141,125,127,120
8.7292,4.6726,5.0724,105,112,151
11.0328,3.9534,6.7428,75,129,120
8.686200000000001,4.6400000000000015,6.027,125,98,96
12.3438,4.4608,5.3892000000000015,109,100,107
10.609000000000002,4.1174,5.7764000000000015,79,159,99
10.517999999999999,4.6498,5.949400000000002,109,129,142
8.6816,5.0852,5.7784,135,136,112
8.7784,4.7258,5.1206000000000005,129,111,125
9.0436,4.7742,4.4712000000000005,80,99,161
8.844000000000003,4.738,5.1208,125,139,123
9.6466,3.9716,5.8266,124,90,149
9.735,4.7730000000000015,6.1574,126,126,121
9.3466,3.7642,5.7748,132,136,130
8.762400000000001,4.9506000000000006,5.002000000000002,104,148,81
8.888200000000003,4.5788,5.2828,127,126,124
12.492,4.4174,5.3806,125,126,133
10.0642,4.6594000000000015,6.027,123,116,126
8.7402,4.3922,6.1502,135,104,128
10.3112,4.1334,5.2758,122,123,140
8.9114,4.7938,6.5814,126,127,125
9.183,3.901,5.8896000000000015,124,131,120
10.4132,4.5996000000000015,5.9940000000000015,124,124,121
10.0644,4.628,6.0200000000000005,117,108,94
8.6178,4.5798000000000005,5.3370000000000015,126,118,119
8.6914,5.222,5.7104,159,124,142
11.477,4.485,5.8204,101,131,133
9.1654,3.8646,5.867000000000001,121,121,110
11.3806,4.1450000000000005,5.5034,158,84,128
11.442,4.099,5.5310000000000015,122,126,119
8.8614,4.7444000000000015,5.1766000000000005,110,137,117
8.6922,4.2572,6.2462,63,160,117
9.6516,4.7944,6.1456,125,121,144
9.04,4.651,6.0680000000000005,123,121,134
11.448,3.6308,6.921,71,137,126
8.8358,4.6836,5.1718,137,129,90
10.9382,4.442,5.8706000000000005,135,112,105
12.4416,4.4054,5.3782000000000005,124,122,130
10.2954,4.463,4.0464,120,137,147
9.2422,4.7646000000000015,6.2702,138,116,131
10.3988,4.1672,5.7428,124,125,138
11.9324,4.4278,5.5104000000000015,125,127,126
9.2528,4.2496,4.5974,195,110,102
9.3262,4.3226,5.1720000000000015,131,138,150
9.0116,4.6476000000000015,6.7392,128,137,130
8.823400000000003,4.6044,5.2446,127,129,123
9.3134,3.6896,5.9242,114,140,158
8.946200000000003,4.6474,6.4306,121,86,84
11.5366,4.5026,5.814,126,126,125
8.993400000000003,4.7554,5.9606,127,130,123
9.6976,4.301,5.2998,108,125,137
11.2976,4.8536,6.1298,85,126,153
10.417,4.3706000000000005,5.355,122,128,177
12.398,4.4738,5.3846,125,126,125
10.3316,4.6018,5.206,117,92,96
8.6812,4.9656,5.0794000000000015,116,117,137
9.0052,4.6928,5.9956000000000005,122,135,124
11.7604,4.4858,5.6618,133,117,133
10.3292,4.498,6.1698,148,158,73
9.5336,4.6552,4.6566,141,114,194
10.0016,4.6066,6.9312000000000005,104,139,129
9.119,3.7528,6.0456,127,97,118
9.5452,3.937,5.9238,120,86,169
12.3396,4.5314000000000005,5.4124,129,121,128
9.3124,3.6672,5.8948,113,138,155
8.834200000000003,4.7032,6.6614,136,162,125
8.8762,4.2280000000000015,5.2312,83,86,174
10.3982,4.0952,5.2428,126,126,133
8.7178,4.715,6.2166000000000015,130,136,106
8.9978,4.7946,6.593999999999999,108,129,138
9.4098,4.8204,6.2094000000000005,125,125,124
12.6894,4.355,5.2092,124,118,122
10.9014,4.0076,5.8114,99,133,132
10.5734,4.3932,6.420800000000002,118,167,168
11.3754,4.1054,5.5714000000000015,142,104,106
11.3248,4.0992000000000015,5.0518,130,150,88
8.6856,5.0928,5.7098,125,127,125
9.7926,4.7188,6.1454,121,117,140
10.470999999999998,4.1138,5.2084,127,121,123
8.9948,4.7608000000000015,5.9198,125,128,127
9.1574,3.8776,5.8752,124,130,123
11.3156,4.0814,5.106800000000002,125,94,181
11.5846,4.1912,5.2976,136,149,138
11.4164,4.6078,5.7874,125,130,127
8.6698,4.9906000000000015,5.766,125,128,125
11.252,3.9532,5.777,129,117,115
11.1556,4.1798,5.037,121,130,110
8.732800000000001,4.718,6.0504000000000016,123,131,128
10.786,4.2564,6.6672,139,148,90
10.3174,4.5518,6.1034000000000015,140,114,90
8.707,4.9636000000000005,5.8346,133,88,138
9.2698,3.7194,5.7730000000000015,120,110,113
8.7212,4.5192000000000005,5.3618000000000015,117,132,143
9.2896,3.6546,5.8236,110,144,118
8.948400000000003,4.6504,5.2458,124,132,128
11.0142,4.5518,5.8722,125,123,125
9.9746,4.466,6.867999999999999,98,114,140
8.9496,4.7846,5.2964,108,131,142
12.1512,4.4722,5.5034,129,126,125
8.700800000000001,4.7964,6.1776,127,133,108
12.6044,4.4574,5.2466,120,121,142
9.3878,4.7522,6.2306,121,122,144
10.4636,4.1278000000000015,5.7242000000000015,131,134,118
8.687999999999999,4.5200000000000005,5.2792,122,142,125
9.3598,3.8794,5.8642,111,150,148
8.9486,4.7816,5.3624,119,107,126
9.89,4.2178,5.2402000000000015,143,95,87
8.7468,4.181,6.2694,162,132,119
8.6798,4.2956,6.1062,110,132,115
8.5718,4.4606,5.377000000000002,128,150,134
9.4244,4.7424,6.1652000000000005,127,112,103
11.2148,4.1204,5.0242,128,130,131
11.827,4.4654,5.5678,119,120,127
10.4082,4.5728,5.9626,125,125,122
8.9,4.8796,6.5886000000000005,123,120,159
8.7096,5.083,5.7204000000000015,124,141,127
9.9522,4.6164000000000005,6.9318,124,123,126
12.217,4.4772,5.492999999999999,126,127,125
11.1186,4.1724000000000006,4.9746000000000015,116,132,161
8.6708,4.7844000000000015,5.1732000000000005,141,169,122
9.8088,3.8739999999999997,5.8466000000000005,78,114,155
8.8352,4.6134,5.2634,126,127,125
9.041,4.6172,5.2696000000000005,111,128,137
11.705,4.4750000000000005,5.7206,134,114,135
8.846400000000003,4.4226,6.1234,149,95,112
8.7416,4.4586000000000015,6.2106,130,125,130
12.3306,4.574,5.4024,157,106,148
8.977400000000003,4.6314,5.2440000000000015,125,140,116
12.3582,4.4792000000000005,5.453600000000002,127,124,130
8.9552,4.667,5.3316,127,121,125
10.1092,4.4922,6.5044,139,86,118
11.9626,4.378,5.3954,130,139,141
8.774000000000001,4.7504,5.231,128,125,126
9.281,3.8712,5.901000000000002,125,127,124
8.629800000000001,4.9106000000000005,5.7192,128,158,163
11.8862,4.4224000000000006,5.4628000000000005,119,109,129
9.5036,3.95,5.9352,131,96,175
8.748800000000001,4.3292,6.2586,126,127,125
9.137,4.6824,6.2262,135,151,144
12.6036,4.3508,5.2372000000000005,126,127,125
10.3852,4.1524,5.729,125,119,138
8.934000000000003,4.7852000000000015,5.2892,123,127,139
10.0458,4.4292,6.864000000000001,118,133,144
8.8876,3.8844,5.8748000000000005,138,141,135
11.6418,4.5568,5.782,98,116,122
11.9568,4.263999999999999,5.4282,152,136,98
10.657,4.1148,5.1508,129,130,101
8.7202,4.4558,5.3354,128,127,117
8.9486,3.8372,5.7598,135,114,108
9.1054,4.6688,6.0126,156,110,96
8.6616,4.3392,6.1672,171,69,85
8.6768,4.6944,6.0842,143,123,109
9.85,3.723,5.679200000000002,76,142,128
11.2312,4.1276,5.0134,122,143,128
8.8408,4.7602,6.6612,151,193,166
11.4372,4.0544,5.2128000000000005,149,130,166
9.798,4.5244,3.9212,145,139,209
11.9606,4.413,5.4834000000000005,126,127,125
8.9282,4.8762,6.6414,105,119,95
10.2328,4.1544,5.256,109,107,99
8.791,4.5794000000000015,5.2268,130,122,119
12.3682,4.5778,5.457400000000002,112,113,100
11.1754,4.5572,5.7208000000000006,136,84,129
9.0114,4.798,6.6066,102,118,131
10.3626,4.5998,5.2584,117,120,139
10.3048,4.513999999999999,6.0914,142,123,125
9.0828,3.8942,5.8716,142,155,117
11.595999999999998,4.4824,5.7608000000000015,123,124,122
8.883600000000003,4.9146,5.856,78,117,113
10.6922,4.0504,5.8182,86,142,115
8.7258,4.3144,6.267600000000002,126,128,125
9.3474,3.717,5.8078,125,126,124
8.6846,4.6046000000000005,6.0932,67,159,122
8.8206,4.6922000000000015,6.6496,125,173,106
10.0182,4.2366,5.295,103,133,135
8.707,4.7604000000000015,5.0008,58,63,142
12.404000000000002,4.5089999999999995,5.4626,122,109,120
10.3794,4.1432,5.718999999999999,124,101,129
8.8872,4.8176000000000005,5.3884,129,135,107
12.0566,4.4146,5.5432000000000015,127,135,111
8.7674,5.0356000000000005,5.7938,119,149,129
9.3478,3.7172,5.7628,122,132,101
10.1586,4.6726,6.0366,97,136,141
9.1398,4.4412,4.9888,95,89,144
11.9754,4.4136000000000015,5.4708000000000006,126,127,125
11.8044,4.3192,5.4248,110,129,102
10.1936,4.0522,5.7906,140,127,141
8.763,4.8934000000000015,5.078600000000002,121,123,122
11.7942,4.4868000000000015,5.5496,129,80,141
11.87,4.2314,5.4096,182,123,165
12.6082,4.3162,5.0956,129,72,129
10.1142,4.5070000000000014,6.5316,168,115,116
8.763,4.833,5.1702,125,127,125
10.9726,4.7104,5.9186000000000005,144,122,133
8.6952,4.9696,5.824400000000002,119,92,134
8.539,4.5276000000000005,5.5746,65,76,193
10.8198,4.0858,4.9552000000000005,124,197,111
12.3484,4.4678,5.4534,127,125,129
10.8806,4.1436,5.029,129,124,138
12.2168,4.4052,5.4826000000000015,150,133,97
9.8772,4.2589999999999995,5.2906,123,130,119
8.8686,4.6558,6.604,124,131,120
12.519,4.5082,5.3298000000000005,121,126,125
9.4752,4.7038,4.8488000000000016,149,163,157
11.2108,3.926,5.7684000000000015,88,140,91
10.463,4.3122,6.3616,193,47,72
12.4314,4.5472,5.2928000000000015,134,85,181
8.64,5.0514,5.75,126,126,125
9.1328,4.7726000000000015,6.4206,138,161,169
9.025,4.561,6.6084000000000005,158,81,69
9.2624,4.7766,6.2358,133,110,123
8.724,4.5044,5.2852000000000015,131,123,143
11.5832,4.1508,5.3260000000000005,134,128,130
9.877,3.8956,5.8340000000000005,137,130,100
10.2806,4.5854,6.016,125,125,124
8.6928,4.8952,5.162000000000001,124,133,110
8.716000000000001,4.2712,6.1772,121,130,133
11.2608,3.9096,5.7848000000000015,130,103,84
8.825000000000003,4.6514000000000015,6.5276000000000005,100,112,135
8.7498,4.2456000000000005,6.2008,119,130,128
12.5116,4.4374,5.2214,140,108,157
11.2322,4.5918,5.7250000000000005,139,105,133
8.7832,4.4766,6.2068,111,126,155
8.721,4.8478,6.0456,107,93,105
8.647,5.037,5.7022,126,126,127
10.4494,4.6246,5.9248,134,106,134
8.7992,4.6530000000000005,6.5838,131,115,131
11.9736,4.2989999999999995,5.4426000000000005,140,136,114
10.345999999999998,4.3884,6.296,99,148,112
8.9908,4.6819999999999995,5.344600000000002,127,111,129
11.265,3.784,6.8238,59,140,52
9.3152,3.733,5.8412000000000015,126,127,125
11.2148,4.5426,5.763999999999999,129,126,117
10.9002,4.1504,5.0348000000000015,123,129,142
11.2188,4.1450000000000005,4.6246,128,123,121
12.7084,4.4719999999999995,5.0668000000000015,179,107,123
10.343,4.5514,6.0328,134,115,135
11.1928,4.7812,6.0329999999999995,146,167,154
9.8218,4.7912,6.1414,122,126,146
9.2864,4.9312000000000005,6.8056,100,151,115
9.9818,4.5594,6.888800000000002,118,121,162
11.9758,4.4564,5.4892,127,126,125
8.836400000000003,4.363,5.7272,88,98,194
11.3518,4.5842,5.7658000000000005,125,129,128
10.3272,4.433,6.212999999999999,114,172,73
11.1848,5.0528,6.3182,55,85,179
8.7768,4.6238,5.9618,117,128,145
9.279,3.7616,5.836200000000002,124,127,125
10.5642,4.4110000000000005,6.3974,137,160,186
8.6084,4.3794,6.1798,91,129,151
11.9888,4.3374000000000015,5.4102000000000015,139,162,111
9.0216,4.6178,6.1386,84,181,125
9.5046,4.8344000000000005,6.2018,96,119,111
10.3606,4.655,5.1798,140,133,130
8.840200000000003,4.537,5.3168000000000015,122,133,137
11.4764,4.5404,5.8632,124,159,122
9.3238,3.6994,5.8082,125,127,124
8.9932,4.7632,6.6134,124,124,125
8.6654,4.7214,6.046,171,97,89
8.9102,4.7162000000000015,5.211600000000002,116,154,142
8.924800000000003,4.668,6.6104,127,127,125
9.7362,4.7314,6.1136,102,148,136
9.8394,4.2104,5.288200000000002,85,122,140
12.4,4.5622,5.4098000000000015,128,124,124
9.1054,4.6468,6.2379999999999995,125,135,167
8.6358,4.9482,5.6998000000000015,140,109,134
8.9138,4.5994,5.33,116,131,158
8.8712,4.638999999999999,5.3414,123,129,134
10.299,3.597,4.7356,110,105,109
8.976,3.7866,5.8076,120,138,125
10.7258,4.5476,6.8014,73,104,171
11.2214,4.5198,5.7829999999999995,135,123,127
10.7276,4.496,5.8612,114,119,86
9.8122,4.2176,5.2708,65,125,59
8.74,5.0612,5.7294,122,163,129
10.294,3.8532,5.1026,144,186,175
12.0162,4.4206,5.46,126,127,126
8.7874,4.8952,5.0776,119,130,125
8.7322,5.064,5.7806000000000015,121,135,126
8.8064,4.3646,6.1370000000000005,135,163,98
11.4338,3.656,6.9042,108,164,92
8.8236,4.533,5.2616000000000005,135,133,125
9.363,3.8146,5.8210000000000015,107,141,159
10.7324,4.5052,5.9188,123,125,142
8.9856,4.612,5.2976,127,124,126
8.712,4.3984000000000005,6.2002000000000015,126,126,125
8.682400000000001,5.0116000000000005,4.737,117,115,113
12.5138,4.3404,5.191,128,80,143
8.831800000000003,4.768,5.2138,115,134,126
10.3446,4.6088000000000005,6.0174,122,123,120
9.3942,4.7774,6.2084,126,126,127
11.3562,4.0804,5.1544,102,164,110
10.4444,4.163,5.7796,110,118,110
9.897,4.1994,5.2970000000000015,112,132,132
8.857800000000003,4.76,4.8856,137,114,134
12.4108,4.4402,5.2938,100,80,107
11.1386,4.1312,4.9446,113,101,129
8.765600000000001,4.4484,6.192,126,124,134
9.9822,4.1976,5.2688000000000015,123,131,117
8.754800000000001,4.7248,6.0832000000000015,125,127,126
9.628,4.2884,5.2798,93,131,133
9.1472,4.5008,5.2472,101,149,68
11.7678,4.2304,5.393000000000002,139,131,119
8.8508,4.7786,5.349,140,136,129
8.8482,4.3918,6.1358000000000015,149,146,126
8.862,4.5822,5.2806000000000015,126,126,124
9.3276,3.6924,5.917000000000002,128,132,159
8.769,4.2876,6.247000000000001,129,119,131
9.9664,4.1828,5.252999999999999,123,136,97
8.6506,4.4696,5.3424000000000005,126,124,124
9.642,3.9382,5.7958,127,57,129
8.9748,4.7234,6.5348000000000015,124,128,128
9.3072,4.7528000000000015,6.2452000000000005,113,117,151
11.1814,3.9272,5.7666,135,136,111
8.6788,4.9398,5.8144,106,116,164
9.3436,4.7514,6.1746,104,110,101
8.9246,4.816,5.3340000000000005,120,130,128
10.99,4.1592,5.0516000000000005,147,122,116
8.7592,4.8982,5.0920000000000005,119,126,123
8.576600000000001,4.4644,5.4024,116,165,143
8.9166,4.629,6.4954,138,117,121
9.0186,4.6516,6.5154000000000005,134,148,73
11.6942,4.2592,5.405200000000002,128,134,121
8.7532,4.8744000000000005,5.1690000000000005,126,131,120
9.8046,4.7216000000000005,6.1294,89,132,89
9.37,4.8768,6.2139999999999995,102,113,115
9.2188,4.731,6.2678,137,115,97
10.3742,4.5718000000000005,5.95,126,110,116
8.6468,4.365,6.2014000000000005,164,187,194
8.805,4.5534,5.2440000000000015,130,129,119
8.943,4.739,5.2758,125,129,127
11.5296,4.5396,5.7458,118,110,128
9.9464,4.5786,7.013800000000002,126,128,127
10.806,4.5002,5.8608,125,112,88
11.3602,4.553999999999999,5.7890000000000015,125,127,127
9.073,4.8274,5.8706000000000005,167,101,101
10.6994,4.1286000000000005,5.172999999999999,152,110,137
12.6254,4.4514000000000005,5.2576,106,116,121
8.5816,4.4902000000000015,5.3658,138,125,128
12.5534,4.2838,5.202000000000001,125,125,125
10.6318,4.1298,5.2168,145,105,140
12.5276,4.3919999999999995,5.327000000000001,126,127,125
8.4764,4.5608,5.5892,147,129,211
12.515,4.2892,5.3304,108,158,181
11.0532,4.1612,4.9868000000000015,144,95,155
11.802,4.2488,5.4486,137,123,157
12.5422,4.2958,5.2346,125,126,125
10.3694,4.0588000000000015,5.247800000000002,135,125,160
11.0434,4.4956000000000005,5.88,132,98,171
9.009,4.7914,6.6328000000000005,114,115,114
12.4832,4.3158,5.3218000000000005,79,154,150
10.2258,3.711,4.8864,105,178,128
10.7,4.5168,5.8954,125,126,121
8.861600000000003,4.5916000000000015,5.2876,124,123,122
9.152999999999999,3.8738,5.8292,117,124,84
8.8968,4.5774,6.5310000000000015,76,163,126
8.9244,3.7972,5.8530000000000015,123,130,151
8.695,5.0734,5.6678000000000015,119,140,165
11.9874,4.2868,5.4384000000000015,125,170,74
10.6758,4.5342,5.8500000000000005,121,95,160
10.2856,4.1582,5.2826,125,123,127
8.7268,4.7112,6.006,123,115,162
8.998800000000003,4.7502,6.6556000000000015,125,98,117
12.6268,4.3372,5.191400000000002,126,127,125
8.9216,4.6464,6.457400000000002,135,112,90
12.0708,4.4084,5.4736,126,127,125
9.0058,4.6000000000000005,6.5230000000000015,160,143,86
12.6608,4.3348,5.0534,104,62,140
10.203,4.5302,6.4944000000000015,120,122,142
12.5926,4.3458000000000006,5.2626,126,127,125
9.9112,4.7532000000000005,6.107,117,114,158
12.123,4.423,5.4276,138,152,125
11.4512,4.111000000000001,5.2388,169,156,147
9.2722,3.8338,5.8716,127,126,125
12.5108,4.428,5.2066,155,120,157
8.8992,3.9202,5.8824000000000005,195,98,117
11.415999999999999,3.9802,5.1812000000000005,125,104,113
9.0614,4.6702,6.1824,130,134,137
8.6922,4.3184000000000005,6.1714,126,105,130
10.0474,4.5258,6.9479999999999995,117,92,148
10.212,4.4426000000000005,6.513400000000002,102,105,158
12.6528,4.293,5.1336,126,126,124
12.0312,4.343,5.4578000000000015,131,132,116
12.0682,4.3628,5.5422,134,123,137
10.3246,4.5784,5.9738000000000016,120,113,118
9.419,3.8236,5.9388000000000005,125,135,124
8.6898,4.5598,5.379,108,128,103
10.5306,4.1414,5.222,128,120,127
8.696200000000001,4.3638,6.1998000000000015,124,126,123
8.8292,4.7330000000000005,5.332000000000001,130,151,121
8.7438,4.369,6.3014,135,131,128
12.0748,4.3498,5.5094,143,125,133
8.9292,4.7172,6.5346,125,127,125
8.761800000000001,4.572,6.0974,122,131,130
9.2574,4.4396,5.2986,123,119,120
8.9014,3.9338,5.8864,197,94,133
8.7684,4.4964,6.0264000000000015,109,115,162
8.6852,4.1512,6.1674000000000015,130,114,151
10.854,4.0518,5.8180000000000005,102,127,141
9.033999999999999,4.7306,6.5914,118,98,120
11.5498,4.5274,5.8642,126,116,137
9.8988,4.3104000000000005,4.9386,139,145,183
8.855400000000003,4.627,6.5992000000000015,108,143,86
8.8782,4.618,6.6129999999999995,114,112,103
8.759400000000001,5.1142,5.811,110,157,172
8.8736,4.5954000000000015,6.5184000000000015,103,128,131
9.7672,4.2606,5.2466,37,217,43
8.754,4.3116,6.1652000000000005,126,120,116
8.8194,4.6308,6.5974,129,152,94
12.1144,4.4838000000000005,5.4996,152,133,119
12.0022,4.3662,5.4426000000000005,126,128,124
8.7454,4.3688,5.3694000000000015,114,133,125
9.2364,3.7724,5.7856000000000005,97,107,121
10.502,4.6136,5.9162,124,124,135
10.0608,4.4344,6.8629999999999995,125,123,141
10.5166,4.5748000000000015,5.8864,131,102,99
8.743400000000001,4.7904,6.1028,99,147,139
8.707600000000001,4.2148,6.1348,102,101,133
8.692,4.4752,5.4202,128,134,122
8.735800000000001,4.7552,5.1306,126,126,124
8.7606,4.618,6.5732,193,192,169
8.8084,4.7662,5.23,122,129,123
11.0042,4.5392,5.876,126,119,128
8.717600000000001,5.0216,5.8020000000000005,130,114,104
8.9326,4.6514000000000015,6.7426,101,154,152
8.7348,5.0182,5.734,121,154,128
9.9852,4.6516,6.121,120,126,139
9.339,3.772,5.9270000000000005,126,127,118
10.363,4.5784,5.953600000000002,124,117,120
12.647,4.3136,5.083,129,97,117
12.6008,4.3628,5.2978000000000005,126,120,125
12.6786,4.3792,5.1926000000000005,126,125,124
8.681000000000001,5.0098,4.7364000000000015,117,115,113
8.708,4.6006,5.9804,173,68,67
9.5932,3.9318,5.8782000000000005,146,103,131
8.918800000000003,4.7418000000000005,6.5678,126,127,125
8.818999999999999,4.3432,6.1454,137,149,106
8.6906,4.2938,6.1482,138,130,131
9.8248,4.7754,6.165,124,119,122
11.1516,4.5236,5.7732,127,125,113
9.3132,4.4348,5.2652,122,128,126
10.0568,4.629,6.0882000000000005,139,114,140
9.4044,4.891,6.1258,171,81,121
8.7438,4.1352,6.1464,162,95,125
9.2428,4.7616000000000005,6.2200000000000015,123,87,135
8.939,4.7068,5.2506,124,132,128
9.3112,3.6568,5.8488000000000016,121,130,130
8.997200000000003,4.8976000000000015,5.3602,190,177,153
9.967,4.2198,5.2978000000000005,126,127,126
12.5636,4.336,5.332000000000001,128,116,147
12.370999999999999,4.5126,5.4398,126,127,125
10.3178,4.3878,6.2786,67,136,91
11.046,4.5682,5.7872,139,113,144
9.0,4.5982,6.5508000000000015,125,135,106
9.524,4.785,6.1778,126,127,129
8.7536,4.2574000000000005,6.1684,130,146,139
8.828000000000003,4.7448000000000015,5.1066,140,137,118
9.252,4.4292,5.2848000000000015,116,130,121
12.6086,4.3364,5.1786,126,126,125
9.355,3.7796,5.9288,126,130,122
11.9226,4.2634,5.4030000000000005,151,152,108
11.1852,3.9116,5.811,161,139,116
9.3362,4.4496,5.2556,94,134,144
8.8788,4.62,6.5468,105,138,145
10.7142,4.5248,5.905200000000002,126,126,125
8.7528,4.5554000000000014,6.0446,111,127,128
8.7728,4.7052000000000005,5.1206000000000005,121,114,118
8.7074,4.3878,6.2552,126,128,120
8.775,4.7402000000000015,5.2634,123,135,128
12.0676,4.3678,5.5518,131,128,134
9.0518,4.6212,6.0892,126,126,125
8.7528,4.9014000000000015,5.04,124,131,125
10.302,4.6160000000000005,6.0276000000000005,127,124,126
9.2096,4.7846,6.3172000000000015,139,99,124
9.2618,3.804,5.9986000000000015,133,140,122
12.3622,4.5148,5.3322,183,78,83
11.828,4.2772000000000014,5.3718,124,134,124
8.7864,4.3434,6.3154,134,114,134
8.722800000000001,4.7824,5.0414,126,135,131
8.97,4.806,5.952000000000001,126,155,97
10.0624,4.4376000000000015,6.8298000000000005,107,137,129
8.6356,5.0244,5.8238,108,141,116
11.5188,4.1206000000000005,5.2829999999999995,135,144,152
12.7224,4.444,5.1124,129,125,117
9.8862,4.2704,5.2844000000000015,123,128,128
8.8424,4.7482000000000015,5.3662,136,150,114
8.8764,5.1444,5.2132000000000005,105,164,90
8.6696,4.3286,6.1698,129,72,85
9.0316,4.6934000000000005,6.6028,114,102,113
8.894,4.5326,6.0522,137,136,90
12.4888,4.3352,5.2176,119,74,140
8.821200000000003,4.1400000000000015,6.2782,104,147,65
11.2646,4.6036,5.718,110,111,146
9.3296,3.8126,5.9342000000000015,126,123,128
11.565999999999999,4.5354,5.7988,126,127,125
8.8688,4.6614,6.6776,121,121,122
8.992,4.7574000000000005,6.6678000000000015,121,110,109
9.9964,4.7012,6.1332,119,107,119
11.0548,4.5554000000000014,5.8514,122,117,121
11.5878,4.1326,5.3132,162,135,122
10.6878,4.4948000000000015,5.8572000000000015,46,189,34
11.6242,4.4866,5.8214000000000015,126,115,137
9.8772,4.1826,5.2692000000000005,117,70,136
12.5924,4.3292,5.1560000000000015,128,115,130
11.559,4.4954,5.8172000000000015,127,126,126
12.6802,4.3196,5.1296,126,126,124
9.2444,3.8812,5.836200000000002,123,128,117
9.2284,3.868,5.8598,125,126,121
11.3016,4.8978,6.2526,73,103,163
8.7272,4.3864,6.195,127,125,126
8.613800000000001,4.3664000000000005,5.5222000000000016,110,144,122
10.8448,4.5424000000000015,5.856400000000002,127,116,129
8.849400000000003,3.7714,5.8364,184,93,102
11.497,4.133,5.2832,139,153,142
8.7842,4.2348,6.1024,129,129,172
8.661,4.3948,5.3848,134,114,119
10.3684,4.1886,5.2412,143,120,142
10.3646,4.3828000000000005,6.2576,104,164,105
8.9506,3.7568,5.774,105,120,85
11.525,4.1478,5.3088000000000015,136,147,135
9.3648,4.83,6.2292000000000005,125,125,124
11.9408,4.3536,5.3956,130,131,132
10.3566,4.165,5.779,161,147,114
8.7248,4.3568,5.3389999999999995,74,133,85
8.7784,4.5598,5.2382,129,125,125
11.0156,4.7328,5.9046,145,150,118
10.5354,4.564,5.9328,125,126,124
11.4892,4.6176,5.8206000000000016,121,125,116
10.3086,4.0802000000000005,5.7452000000000005,122,96,70
9.2996,3.6918,5.8368,123,129,124
12.38,4.551,5.3956,127,125,127
10.3452,4.1392,5.7164,159,85,100
11.1674,4.5824,5.7658000000000005,137,123,120
9.325,3.8382,5.9254000000000016,126,127,125
9.0854,4.6772,5.949400000000002,141,151,114
8.597999999999999,4.4966,5.4376000000000015,135,165,129
11.1008,4.1294,5.010000000000002,120,123,126
8.6228,5.0058,5.7684000000000015,106,150,138
9.1996,4.502,5.2938,113,140,111
11.7292,4.2852000000000015,5.428999999999999,138,135,88
11.309,4.5264000000000015,5.7388,126,142,86
9.4014,3.7108,5.7862,113,125,130
11.540999999999999,4.1106,5.2872,152,147,158
8.9456,4.5360000000000005,6.723000000000001,125,157,118
11.8062,4.2946,5.3618000000000015,120,143,129
8.748000000000001,4.3074,6.2866,127,127,132
8.687800000000001,5.0566,5.6358000000000015,121,136,152
9.5178,3.97,5.9264,123,96,144
10.3674,4.0556,5.2228,140,117,147
8.845600000000003,4.7842,5.2250000000000005,89,134,117
8.6928,4.8866000000000005,5.7700000000000005,94,149,163
9.8108,4.7538,6.1454,125,124,127
11.6028,4.4922,5.7054,160,114,73
8.5794,4.4252,5.3136,144,154,178
8.7052,4.5870000000000015,6.1302,81,143,124
10.1982,4.6402,6.0598,118,126,124
9.0616,3.8888,5.7774,134,144,140
11.629,4.2232,5.3348,128,139,132
12.485,4.367,5.3372,117,128,132
9.0876,3.8482,5.8306,112,115,88
12.5786,4.4382,5.3224,125,124,125
8.791,4.7854,5.252999999999999,119,113,108
8.7674,4.5498,6.0102,120,116,115
11.6274,4.2006000000000006,5.3708,129,137,128
11.1364,4.5680000000000005,5.8352,125,111,107
11.87,4.4644,5.4750000000000005,132,99,141
12.5066,4.3882,5.2648,126,126,126
9.3558,4.8538000000000014,6.19,127,125,126
9.966,4.0332,5.7712,202,86,75
9.1288,4.6762000000000015,6.2708,144,134,152
11.4348,4.1044,5.197,128,143,117
8.74,4.3112,6.178,128,119,117
8.7012,4.7068,6.2072,134,143,123
9.3312,3.8482,5.9838000000000005,124,112,117
11.897,4.3818,5.4988,99,150,148
9.2184,3.7786,5.7688000000000015,57,53,165
11.2998,4.6302,5.7379999999999995,111,143,150
11.445,4.104,5.5636,119,120,122
9.9126,4.1640000000000015,5.287999999999999,85,131,142
9.2116,3.8992,5.8224,128,101,108
10.1104,4.4638,6.5568,137,99,89
9.3756,3.8616,5.9392000000000005,124,119,122
11.5018,4.5508000000000015,5.7392,127,114,125
10.2932,4.4648,6.254,123,127,128
8.9268,4.6844,6.421200000000002,59,44,165
9.1324,4.7352,6.2736,129,126,134
8.7506,4.6462,6.0674,126,127,125
10.1548,4.158,5.3066,99,136,141
12.7166,4.3952,4.9998000000000005,124,81,115
11.6672,4.2046,5.3884,128,132,131
8.999,4.6480000000000015,5.255,122,151,133
10.944,4.101,5.0286,82,179,70
11.323,4.9266000000000005,6.3102,99,220,103
8.8466,4.7822000000000005,5.1226,104,125,123
8.866200000000003,4.7962,6.6298,129,123,129
10.2156,4.6526000000000005,6.0338,118,122,144
10.445,4.5466000000000015,5.9188,113,102,103
10.3008,4.1512,5.2778,126,123,127
11.0826,4.4942,5.803,131,121,116
9.2884,3.9574,6.035,170,68,89
8.6536,4.7104,6.0668000000000015,161,99,88
8.5886,5.1036,5.7274,128,124,149
10.3324,4.6386,5.2170000000000005,145,97,130
8.854800000000003,4.8018,4.6928,125,72,97
9.4898,3.568,5.7198,46,63,207
12.4858,4.3342,5.2444000000000015,104,107,126
9.884,4.5566,3.967,123,185,98
9.0148,4.6824,5.941000000000002,125,127,122
8.8246,4.3044,6.2174000000000005,149,113,132
9.3606,3.8122,5.9098000000000015,127,127,125
8.5784,5.0092,5.6288,101,143,92
10.9876,4.4938,5.8556,130,125,129
9.4404,4.349,5.2412,111,108,119
8.815000000000003,4.7142,6.0056,117,161,154
9.332,3.8108,5.7914,139,121,128
8.7362,4.9102000000000015,4.9990000000000006,122,146,103
12.6928,4.3688,5.1722,126,126,124
10.1582,4.513999999999999,6.4926,140,119,139
9.3812,3.8114,5.9444,123,123,126
11.6028,4.5536,5.811,124,124,124
10.743,4.3748000000000005,6.6146,111,177,134
12.0246,4.399,5.4632000000000005,126,127,125
9.044,4.8354,5.8802,137,115,123
12.0782,4.3728,5.5634000000000015,138,129,144
11.5754,4.577,5.7756,119,127,133
12.0372,4.4270000000000005,5.4152000000000005,121,144,148
8.7812,4.6362000000000005,6.181,133,103,119
8.678600000000001,4.6608,6.2120000000000015,146,179,140
10.7866,4.479,5.912000000000001,134,129,144
9.4402,3.9478,5.9434000000000005,141,111,151
8.7026,4.7368000000000015,6.1818,124,132,128
12.3514,4.4456,5.405200000000002,106,106,108
8.8454,4.7968,5.3238,153,124,137
12.6196,4.3660000000000005,5.2346,127,127,125
10.7574,4.1472,5.1328000000000005,130,100,138
10.4614,4.0954000000000015,5.1922000000000015,122,105,99
8.8614,4.6966,6.6832,134,131,137
8.715,4.7708,5.1738,125,131,125
8.6902,4.9508,5.0828000000000015,126,125,121
8.6602,5.0384,5.8086,118,117,112
10.6242,4.1092,5.7832,83,144,116
8.7104,4.675,5.0602,92,92,158
12.4866,4.4918000000000005,5.4074,125,118,124
10.933,4.4806,5.8130000000000015,125,105,88
10.048,4.5986,6.0424000000000015,166,137,121
11.3952,3.6948,6.9046,117,140,109
8.7378,4.7444000000000015,5.1160000000000005,128,129,124
11.413,4.572,5.7738000000000005,125,128,128
11.6202,4.4786,5.7086000000000015,83,163,31
8.9998,4.7154,5.3229999999999995,114,125,121
8.667,4.7902000000000005,6.1778,131,150,106
9.5452,3.9802,5.9246,124,76,146
10.8662,3.9726,5.8450000000000015,88,128,127
11.120999999999999,4.496,5.8128,150,124,138
10.7216,4.0952,5.8098,107,138,130
8.7904,4.3554,6.2542,127,125,126
9.2406,3.8408,5.8614000000000015,125,125,125
9.6354,4.7342,4.5200000000000005,158,65,93
12.4764,4.4094000000000015,5.2592,121,97,126
8.8322,4.673,5.2026,119,126,107
9.8036,4.2816,5.3116,107,128,118
9.1362,3.895,5.8186,147,139,133
10.4254,4.135,5.2502,126,125,125
11.1184,4.5136,5.7992,140,126,122
12.3136,4.4778,5.3806,102,82,85
9.2824,3.7626,5.8558,125,127,125
9.975,4.6512,6.0360000000000005,110,61,124
8.7604,4.4386,6.3082,133,120,120
11.4728,4.0694,5.2174000000000005,164,137,170
11.089,4.5342,5.856,129,84,123
11.237,4.5912000000000015,5.7544,131,121,127
9.1868,4.7868,6.3290000000000015,147,103,107
11.119000000000002,4.4996,5.7612000000000005,151,125,91
9.9664,4.6908,6.1306,120,131,133
11.0344,4.5314000000000005,5.8722,125,114,126
10.7954,4.3238,6.6530000000000005,138,133,118
9.1738,4.4208,5.0920000000000005,139,162,101
12.5968,4.3496000000000015,5.2462,126,127,125
10.2486,4.1584,5.2708,114,118,114
8.9252,4.6960000000000015,6.6928,126,132,123
8.8498,4.7448000000000015,5.1152000000000015,135,147,104
12.4982,4.5392,5.3562,119,124,123
8.9662,4.686,6.5422,126,126,125
8.786800000000001,4.4358,5.8814,65,123,171
8.9426,4.6024,6.6164000000000005,106,127,131
8.755600000000001,4.817,5.2412,122,140,79
8.6546,4.6688,6.166,80,139,113
11.6228,4.5382,5.7078000000000015,145,119,197
8.728200000000001,4.6478,6.1734,124,124,124
9.4996,4.3232,5.2864,128,111,128
10.9592,3.9838,6.707999999999999,87,117,113
10.043,4.1908,5.2614,122,137,141
10.7664,4.4922,5.8934000000000015,125,127,123
10.0432,4.4578000000000015,6.8666,121,129,132
8.926,4.9036,5.3422,69,103,165
8.7142,4.848,5.1882,115,134,106
8.949,4.7128000000000005,6.4472000000000005,115,127,162
9.3452,3.7332,5.961,136,110,163
9.3246,3.6506,5.8662,123,131,152
8.6706,4.9652,5.66,146,144,103
10.5964,4.5264000000000015,5.922999999999999,123,127,135
8.6636,4.79,6.0994,136,85,143
9.074,4.7004,6.268000000000002,141,131,146
12.437999999999999,4.4056000000000015,5.3528,110,120,122
8.7276,4.1768,6.1114000000000015,82,43,156
11.8682,4.4318,5.5618,128,119,146
10.4344,4.3446,6.2662,119,155,135
8.7744,4.3254,6.2916,129,121,132
11.6916,4.5086,5.6852,131,110,139
8.9514,3.7768,5.816400000000002,121,129,129
8.9494,4.8188,4.573,135,48,120
9.3838,3.7306,5.9312000000000005,147,99,152
9.4924,4.8348,6.197,102,120,112
8.9338,4.7278,5.2796,126,127,125
12.3444,4.4834000000000005,5.3378000000000005,181,89,88
8.8102,4.8012000000000015,5.106,123,127,125
8.745000000000001,4.4806,5.4236,139,113,142
9.2762,3.718,5.9768,92,190,123
12.672,4.3056,5.2032,131,119,129
10.5112,4.1376,5.7728,133,150,139
8.573400000000001,5.0108000000000015,5.7208000000000006,100,216,116
8.5858,4.5002,5.357,146,113,134
8.7184,4.2606,6.252999999999999,88,130,149
8.6724,4.8944,5.7598,126,67,143
8.7004,4.4434000000000005,5.2634,80,130,80
9.9976,4.5106,4.0278,51,176,77
9.0964,3.889,5.8716,129,145,132
9.6124,4.3438,5.2508,100,157,125
8.9992,4.6062,5.2762,126,126,124
8.828800000000003,4.3668000000000005,6.2984,100,123,124
8.7056,4.6882,5.1404000000000005,114,138,138
8.7004,5.0056,5.6462,140,130,122
9.3226,4.851,6.2490000000000006,133,119,102
8.5984,4.5626000000000015,5.3884,190,166,146
8.989600000000003,4.7054,6.4294,141,115,140
8.786200000000001,4.1838000000000015,6.1314,158,122,132
11.8076,4.2354,5.3546000000000005,128,128,77
9.2156,3.751,6.0208,134,82,111
11.7582,4.5402000000000005,5.6188,156,82,140
9.1912,3.7952,5.9294,102,143,141
9.6306,4.3324,5.303,113,135,133
11.4106,4.0866,5.5286,106,114,104
8.8854,4.6934000000000005,6.6110000000000015,131,128,125
8.768600000000001,4.6486,6.165,127,119,124
11.945,4.3276,5.4692,126,128,125
12.5606,4.3612,5.1608,140,98,140
10.9062,4.4452,5.8672,99,136,111
12.0752,4.3820000000000014,5.5172,127,126,126
10.307,4.1796,5.2654000000000005,122,119,139
11.9414,4.3128,5.4572,127,128,126
10.4426,4.5814,5.9682,126,126,125
10.3588,4.6432,5.1878,136,115,137
11.4154,4.5942,5.7974000000000006,126,128,126
9.1818,3.7544,6.0508000000000015,103,95,124
8.7924,4.4350000000000005,5.8696,65,96,186
11.2494,4.1518000000000015,5.0262,110,154,147
8.9914,4.7786,6.5512000000000015,104,148,161
8.9738,4.6894,6.577800000000001,128,128,124
9.2864,3.743,5.965400000000002,125,116,132
9.3732,3.8604,5.9728,122,87,114
12.1456,4.465,5.5102,128,127,123
8.8832,4.7724,6.6160000000000005,126,126,125
8.661800000000001,4.3732000000000015,6.2024,104,147,135
8.8068,4.6296,6.0470000000000015,130,139,133
8.932400000000003,3.9618,5.8878,167,130,187
9.0298,4.6106,5.2704,117,134,131
9.9694,4.601,6.8958,118,120,140
8.8452,4.8642,6.5986,143,141,173
12.3408,4.4886,5.3762,115,99,114
10.4454,4.4,5.3872,128,168,208
8.7148,4.8646,5.17,121,126,120
8.6922,4.3558,6.187200000000002,123,123,120
9.8858,4.5489999999999995,7.0082,84,67,149
8.7224,4.6076000000000015,6.1374,113,122,123
10.895,4.5514,5.8088000000000015,63,56,182
8.6552,4.8844,5.1282000000000005,122,151,109
12.511,4.298,5.2434,116,126,126
10.357999999999999,4.1712,5.2532000000000005,127,122,127
8.889000000000003,4.5642000000000005,5.2946,129,121,128
12.3852,4.5390000000000015,5.4042,126,127,125
10.2534,4.4676,6.2742,162,93,118
9.0274,4.752000000000002,5.9246,127,130,124
8.6134,4.7166000000000015,5.1194000000000015,131,130,142
8.609200000000001,5.0120000000000005,5.7788,70,197,109
11.3444,4.1342,5.0568,106,164,118
9.3834,4.7222,4.1832,110,123,153
12.002,4.3758,5.5198,125,129,127
10.5022,4.62,6.0028000000000015,126,128,90
9.1076,4.7288000000000014,5.952999999999999,134,114,120
9.0754,4.6364,6.1608,142,146,138
9.2544,3.6964,5.8306,111,150,135
9.2922,4.4110000000000005,5.2594,118,121,104
12.6924,4.2698,5.113,150,144,90
9.8822,4.7514,6.1406,119,123,136
10.6746,4.1378,5.2074,141,105,143
11.4622,4.0668000000000015,5.2156,156,133,166
10.7956,4.1422,6.6908,119,98,104
10.4714,4.556,6.001600000000002,126,124,133
10.6356,4.534,5.9122,125,127,126
8.757,4.2482000000000015,6.2246000000000015,121,128,125
8.677,4.7738000000000005,6.1152000000000015,126,117,128
9.091,3.8634,5.8182,109,138,95
9.3486,4.6568000000000005,4.1976,98,79,116
8.706000000000001,4.7502,5.2464,115,159,115
8.935,4.8332000000000015,5.3612,128,127,115
8.9548,4.7142,6.6432,126,127,126
12.3898,4.5174,5.3776,127,125,125
9.6196,4.5652,4.0036000000000005,120,114,107
8.886800000000003,4.7482000000000015,5.2486000000000015,121,134,135
8.742600000000001,4.3618000000000015,6.1118000000000015,113,115,90
9.9032,4.2984,4.905200000000002,178,144,171
12.0232,4.3778000000000015,5.561,125,152,119
9.2914,3.742,5.7858,123,124,123
9.5548,3.952,5.9066,133,87,147
11.3956,3.9836,5.1966,99,152,112
11.4296,4.1094,5.1702,118,141,115
10.5558,4.5862,5.9794,124,124,121
11.3734,4.5152,5.7728,102,132,112
8.8886,4.5838,5.2184,124,114,101
10.8508,4.1274000000000015,5.0224,96,114,89
8.7696,4.6388,6.1364,126,126,125
9.2572,3.7824,5.9442,125,128,125
8.9832,4.6556000000000015,5.9184,119,138,127
11.4752,4.5548,5.8208,126,127,125
8.8202,4.8008000000000015,5.0568,108,124,126
12.6148,4.4278,5.2832,124,120,124
12.1856,4.437,5.4922,127,127,124
11.1992,3.915,5.8022,167,139,129
10.753,4.511,5.8932,125,127,124
8.768600000000001,4.8452,5.0862,126,127,125
10.5152,4.1816,5.1986,146,104,159
11.4778,4.1216,5.4552000000000005,128,88,83
12.4284,4.4112,5.4226,124,113,155
9.2256,3.9212,5.7992,129,108,115
8.8724,4.8032,5.3392,143,125,130
10.4144,4.6080000000000005,5.2198,103,129,110
10.3598,4.1368,5.2982000000000005,122,112,136
8.786,4.559,6.0508000000000015,126,127,125
9.3422,3.8082,5.8624,126,127,125
9.0518,3.9152,5.8266,124,138,120
8.6692,5.0102,5.8318,109,107,113
11.9698,4.4278,5.4076,125,134,154
12.6858,4.3706000000000005,5.175,126,126,124
10.3474,4.423,6.2654000000000005,102,159,118
10.3486,4.5732,5.9996,126,126,125
10.0158,4.4576,6.8492000000000015,122,122,134
11.2468,4.6192,5.7346,148,113,120
10.7612,4.0724,5.8296,105,129,117
11.2382,4.5236,5.8082,140,114,162
10.1716,4.0492,5.7854,151,139,152
9.9424,3.9832,5.7700000000000005,130,93,106
8.7438,4.2674,6.2672,118,124,146
10.2278,4.4764,6.1384,202,140,146
9.1634,3.8746,5.9244,126,139,118
11.8706,4.4284,5.4378,138,88,129
9.3164,3.7476,5.9948000000000015,153,96,167
10.401,4.5846,5.1979999999999995,113,138,98
8.8528,4.7744,5.08,122,127,114
10.8356,4.1454,6.6978,103,135,117
8.568999999999999,4.4862,5.3462000000000005,150,98,136
12.300999999999998,4.4576,5.489,135,116,135
8.753,4.7062,6.0248,118,135,139
11.9008,4.4588,5.569,116,97,133
8.8946,4.5952,6.578600000000002,97,170,139
9.8858,4.9528,6.2556,108,113,162
8.7934,4.699,6.5906,141,97,135
11.1498,4.5852,5.74,142,105,138
12.4876,4.417,5.4246,122,110,186
10.9038,4.5496,5.8044,63,56,182
8.6836,5.0018,4.7408,96,121,103
8.669,4.913200000000002,5.0594,105,107,131
10.1846,4.44,6.3144,134,121,79
10.4982,4.5504,5.992999999999999,127,123,134
9.3968,4.7926,6.167999999999999,119,119,117
10.3856,4.6026,5.2574000000000005,110,113,127
8.8226,4.6878,5.2942,126,127,107
9.2262,4.8168000000000015,6.2586,146,82,144
8.7372,4.8338,6.1116,106,138,120
11.8258,4.2828,5.3938000000000015,126,127,125
10.7732,4.1636000000000015,5.1032,124,97,150
9.7206,4.7366,6.1532,125,127,124
12.032,4.4232000000000005,5.4190000000000005,121,144,148
12.1342,4.3572000000000015,5.4798,161,162,106
8.6788,4.2272,6.1618,129,99,132
11.933,4.3450000000000015,5.4222,127,128,125
11.020999999999999,4.4864000000000015,5.8616,142,119,146
9.568999999999999,4.5526,4.928,106,133,84
9.2772,4.8122,6.2268,127,109,121
10.038,4.4586000000000015,6.7856000000000005,119,70,136
12.4594,4.4239999999999995,5.3104000000000005,124,123,124
9.0678,4.6994,5.9606,129,133,121
10.286,4.4812,4.0502,153,106,157
8.7662,4.3414,6.1724000000000006,113,131,129
9.3368,3.783,5.6918000000000015,159,152,136
10.9882,4.519,5.8594,127,126,125
8.8948,4.5786,6.541600000000002,82,130,140
10.3206,4.5536,5.9542,103,89,94
10.6146,4.598,5.9506000000000006,95,114,124
9.4886,3.5506,5.6846000000000005,52,81,190
9.3102,3.7876,5.8776,127,126,126
8.8772,4.6236000000000015,5.2044000000000015,135,102,79
8.9586,4.6732000000000005,6.5954000000000015,127,126,125
8.827200000000003,4.2508,6.1666,108,156,132
10.245999999999999,4.5928,6.0756000000000006,108,134,148
10.3788,4.6282000000000005,5.2416,113,112,104
10.1012,4.1419999999999995,5.2988,100,170,154
11.967,4.4562,5.4636000000000005,129,125,133
11.0832,4.4822000000000015,5.83,165,114,144
9.264,4.3732000000000015,4.5732,103,155,70
8.859200000000003,4.609,6.6754000000000016,159,132,148
9.236,3.9136,5.8242,120,127,110
11.2902,4.1396000000000015,5.046200000000002,120,144,129
12.1358,4.4468000000000005,5.4542,129,128,132
9.0144,4.6844,6.5374,123,149,114
12.5986,4.2474,5.2512,102,117,152
8.8576,4.7714,5.3326,127,136,125
8.6432,4.9784000000000015,5.8428,105,122,122
8.8246,4.7336,5.1502,122,141,119
8.6884,4.6198000000000015,5.2532000000000005,143,130,130
12.2716,4.4536,5.5186,142,105,136
8.8534,4.7434,5.1512,109,135,125
12.6678,4.426,5.1296,136,116,131
9.5766,4.7620000000000005,6.1328000000000005,125,108,131
9.047,4.5882000000000005,6.5566,143,134,91
8.8056,4.2376000000000005,6.2136000000000005,131,117,122
12.1382,4.4190000000000005,5.4358,141,163,118
10.8308,4.5228,5.8716,125,122,122
11.7772,4.4468000000000005,5.5932,72,139,111
